# 3D point list with one line of data per point:
#   POINT3D_ID, X, Y, Z, R, G, B, ERROR, TRACK[] as (IMAGE_ID, POINT2D_IDX)
# Number of points: 303, mean track length: 9.6518587073885556
18149 0.33872071948962496 2.258395676658298 4.5815785025421771 163 163 160 0.33057617362915565 77 128 79 184 76 187
5120 -1.6787921835164967 -1.2119898521072396 6.0707568635830835 1 0 0 1.0908386812682991 56 41 50 32 47 35 57 55 58 57 43 31 96 26 95 32 93 12 94 43 68 29 22 41
18103 -4.0792716367572135 1.158014457805546 6.0762541943895583 79 80 79 1.9637962276039549 98 2192 91 1432 49 1405 51 1374 54 1609 77 1109 97 658 99 1308 98 678 100 978 71 587 72 25 76 635 75 483 78 478
5112 -1.4641383717291372 2.0358944734484994 4.5090447417556394 35 39 33 0.037521088813084982 50 1750 47 2138 43 1615
18092 -3.2622266787164014 -0.32187604989065638 6.7456591033555444 97 46 43 0.83572986569860985 97 437 77 1112
5109 -3.2490770798644069 3.0862386918327727 5.1428303543227294 176 178 177 0.17487249522169926 50 1753 47 2069 43 1870
4980 0.29054078949646656 2.1443051657386674 4.7040861263005302 16 18 16 0.54810255251632933 50 459 58 502 53 503 47 491 57 319
17963 -1.784967994485894 0.77373322453563287 5.760499291803602 38 3 2 0.45153850569412102 77 641 79 212 72 657
18085 0.22976076911623985 -0.60099034701194365 4.4968708241059101 0 0 0 2.0299935431957121 73 956 80 915
5102 -0.71758409142363866 2.7377340639095742 5.261062185545196 11 12 6 0.13392806816823871 53 2294 47 1976
18074 0.36056925327699241 3.1618623163551827 3.819009747318161 205 81 48 0.16983878921754914 73 867 77 906 76 1008
5091 1.0791200818960103 0.80182006134089068 5.8185384547368955 73 46 44 0.18754308017050811 50 995 47 1868 43 2116
4962 -0.30072355230045972 -0.93936430022832795 5.9382956519050252 100 64 64 0.15590068726604209 50 356 47 276 43 386
17945 -1.0116203461165028 2.3384389114716058 4.2238308177094748 18 21 18 0.55715627202724283 72 709 73 813 77 835 79 736 76 788 78 800
5087 1.0352041994406052 0.86161060393493483 5.7250398114983581 88 72 68 1.1893431294398962 50 2089 47 1830 53 2224 47 1810 56 2235 58 1781
18070 -0.071407811086911868 2.7022745339956971 4.213276677505319 89 90 90 0.27511373671079736 73 1099 77 867 79 1041 76 896 75 530 78 554 70 354
5084 -2.0302739703194583 3.137529692619474 4.634661792823306 220 220 220 0.6072320039719391 50 2175 47 1798 43 2045
18067 -0.23254780946095219 3.2963277220452762 3.3012533191488793 233 235 234 1.8635394494547073 72 1054 77 831 79 351
18027 -0.38139643280205776 -0.49310155466635275 3.8815855407085498 0 0 0 1.0584582220909147 72 365 73 261
5044 -0.38826788017829134 2.6421148420796814 4.026564293043279 59 64 60 0.34248000022595843 50 2068 47 1326 43 1988 95 802
18001 -0.89765460433248678 0.078258119967956494 4.6766018992488689 36 17 13 1.6836318426640593 72 93 77 72 79 50
5018 -4.882543954060762 0.29008545652583551 6.3567683180085037 233 233 233 1.1949305171551856 53 1456 47 975 56 1626
17996 -0.21056687379078246 4.6722532873030556 4.2636574557244868 237 177 139 1.289341106705451 99 763 77 2
5013 -2.8762173502411015 2.5991388585856252 5.4588750651669846 172 173 173 0.53537382822456991 50 878 47 923 43 950 5 286
4884 -0.95355687063406758 2.4214169913830692 5.4560129665511443 242 242 242 1.2373229227683529 58 63 50 2157 47 1841 4 900 5 568
17867 -1.3290132723600665 2.6250871521646446 5.3479394329148287 78 78 78 1.966507659250347 74 1004 80 818 72 946 54 1469 51 1110 45 1703 44 1120 45 1040 46 1117 46 1335 55 609 55 1783 63 604 63 1241 62 243 62 1201 62 1411 61 1385 61 1420 59 250 59 1632 39 389 39 1379 85 659 81 709
17966 -0.32506370627356174 2.1654785756786512 5.5720369544865145 66 68 67 0.15185966391385433 69 1034 73 1023 79 1022 76 1057
4983 -2.9295696864385405 3.1010565201168552 5.1586776482319721 164 164 164 0.10686453873509677 50 488 47 527 43 533
4854 -2.5138039617817745 1.1366160092534323 6.1886666267485397 156 158 157 0.35061282980845504 53 1489 50 1655 5 3
17837 -6.5473846185906632 0.4696068521053533 7.0887831955618994 111 4 4 0.48112394306306128 69 206 72 741
17962 0.15042933596416896 3.0947790251204306 3.6815996668449276 178 100 71 0.83553862569345805 72 772 73 965 77 947 79 1057 76 911 75 534 78 377 70 946
4954 -2.4296456840290319 3.0072857750877322 5.2049379228120056 215 217 216 0.56747278676954571 50 54 47 146 43 246 3 418
17937 0.00073693798626158597 3.3145618445322307 3.5282108800335954 235 133 69 0.24452547024630697 72 847 73 716 77 915 79 895 76 524 75 492 78 637 70 615
17936 -0.44026670084235153 1.8403019866677917 5.7174815223847659 81 81 81 0.60890007137850832 72 541 73 690 77 795 79 646 76 698 92 343 75 670
4953 -2.8238827892331431 3.6813373765456041 5.2732931218725847 191 193 192 1.9306958112951664 50 139 53 1950 47 142 43 351
17913 -0.1454406364370599 3.7184978363736998 3.4133885246300895 104 65 48 1.7675874698955099 72 378 73 351 79 165 76 143 75 134 78 76
4930 -4.8470416747257712 0.49502362300929875 5.9353616141836696 250 250 250 0.45551674085504051 53 1458 50 1497 47 633
4902 -0.035183684510214995 -0.98589635963350841 6.9127581409870027 75 49 49 2.3586604248174408 53 1394 50 664 57 1687 66 1612 58 1481 47 210 43 118
17885 0.1803064645750696 5.4464139653410202 3.9324347909730926 53 54 53 1.3177486522016277 99 2080 72 463 91 1710 86 1095 49 599 72 296
4901 -3.9775849681402962 2.1424235527126489 5.6381992238467893 167 168 167 1.6944656450503588 66 2290 57 2164 56 1610 53 1838 50 1631 57 2292 58 1794 56 1530 53 1869 47 1708 43 1564
17884 -0.37200040345582092 1.5569373848286099 5.8872822639024189 134 134 134 0.80134073391919813 80 437 71 654 69 429 74 415 72 419 72 687 92 1683 99 2048 98 2139 100 2099 73 1003 79 1021 75 1012 81 401 78 963 89 373 83 388 90 253 85 378 88 428 87 371
17880 -1.6270244780252212 0.92491758607258445 6.2542085307788415 112 104 104 1.7284200264277676 96 808 95 1156 93 643 94 584 92 621 97 1121 99 1160 98 851 100 970 91 814 86 998 49 939 69 913 72 572 97 1091 99 1784 98 1233 100 844 91 1046 49 1951
4897 1.5583681801743128 1.8105142406927732 5.7556676937263385 176 171 170 1.3380147774881506 58 2075 53 122 50 145 48 2287 60 2054 66 2361 52 1869 57 2082 58 1427 56 1162 50 2065 40 1701 38 1714 35 1425 37 1962 29 1608 34 1651 33 1974 36 1308 30 1310 28 1255
4768 -2.6562826558912462 3.3109005732060424 5.0507473943112497 192 192 192 0.26024469470644335 53 1299 50 728 47 649 43 835
17751 0.31824227755559514 3.213360278671856 3.6806511263319042 232 118 80 1.544310571737995 69 838 80 830 74 788 72 792 73 943 77 495 77 865 76 1073 76 1116 75 979 78 989
17879 -1.5714538970190084 0.96958025239768075 6.1908636754854989 121 117 116 1.6576250913368944 91 1667 99 2156 86 2013 49 1949 72 861 93 1668 95 2008 94 1763 97 2131 99 1778 98 1849 99 1766 100 1856 91 1649 86 1642 54 1784 69 917 79 1108 76 985
4896 -2.0051576829027442 0.1385114758497783 4.8430280015639919 159 36 35 1.0361386300591924 48 124 57 204 52 85 50 103 66 138 53 107
4767 -2.5378986275212778 3.0706346949577368 5.225602655817565 224 224 224 1.3434803918393428 53 705 50 717 47 719 43 864 24 1068 4 968 3 384
17750 -0.48453217506976137 2.5800583472034431 4.1037356666516596 225 131 80 1.0631501702561528 71 855 74 784 72 784 73 1080 79 799 70 771 65 711 64 731 22 1111
4893 0.93972578192642564 1.6435733918733231 5.8200777514191895 92 92 92 0.094344643293329408 56 2293 50 2260 8 1019
17876 -0.41865509640315141 2.3714155866031894 5.4616898832239817 212 213 212 1.6038774999365859 49 1285 44 1920 45 1263 46 1654 55 1707 63 1786 62 2007 61 2066 59 1947 80 595 71 648 72 647 93 2006 98 2052 100 2029 69 886 80 883 74 885 77 597 77 995 79 987 79 991 76 989 78 993 81 769 89 774 83 798 90 810 85 785 88 916 87 840 82 751
4892 -2.9364067985304096 2.3483361769309425 5.2462190910286974 161 162 162 1.2840939664219404 56 2290 50 2255 47 1425
17875 -1.0841254884385112 2.4558169806697845 4.0715198501813639 63 69 62 1.0526818042198565 100 1536 91 1510 86 1448 49 1556 54 1644 51 1186 72 670 71 630 80 592 69 675 74 496 73 640 81 627 89 596
4880 -0.79994377882225776 2.8169174543002269 3.7173202428448384 238 168 144 0.11427227972819035 53 2064 50 2070 47 1927 43 1882
17863 -2.0761373646526606 1.2303430324057727 6.0593861475697901 114 114 114 1.554677319621802 98 1415 91 1796 49 1757 51 1668 44 1692 80 935 69 1036 72 1040 93 1426 94 1449 92 1430 97 1479 99 1508 98 1996 100 1810 91 1788 86 1780 49 1754 54 1907 51 1669 80 934 73 1093 77 971
4879 -0.0075635094061306278 2.4642661366474976 4.4671605478863512 108 112 109 0.07807034448319447 53 2045 50 2063
4870 -3.741755412884014 2.6861286235654704 5.3792752757513398 158 158 158 0.89156010421060761 53 1666 50 1910 47 1406 43 1275 58 2253
17849 0.26315289813416898 2.8165228309484251 4.133866065585396 220 104 77 0.15592920613386815 71 847 72 933 81 706
4866 -3.6689639227398283 2.3422722102624993 5.58358829425734 143 143 143 0.13623754881351446 53 1875 50 1865 43 1579
4864 -2.6275912797080458 1.8963511781410947 5.8210540859305864 199 199 199 0.048741012169699116 53 1900 50 1830
17846 0.75923803549651014 3.8013387564316909 3.3733904418183105 196 175 167 0.1000643763720384 69 830 72 899 73 518 77 574 79 601
4863 -2.0288243257042939 2.1567263028870185 4.1944889561459631 88 96 89 0.0028720542215489985 53 1747 50 1791
4734 -0.058112350892836277 -0.35343041912588069 6.6796573072305607 71 43 41 2.0667866927914651 56 702 50 285 47 171 43 1499 47 1460 3 325
17717 0.53125214534520349 3.5729366044568827 3.4819961167837188 238 151 97 0.28387508992877453 80 337 74 372 81 364 89 484 83 618
4857 1.0313347373295385 0.086930626458291888 6.66885588074941 128 130 129 0.15775876838341699 53 1879 50 1696 47 1990 43 1697
17838 -1.8865844828943683 -0.3458318838963087 4.6499277454406736 117 10 11 0.16368664967348928 71 538 72 743 73 1074 69 669 79 868
4855 -1.8542294488137148 1.9102908176394295 5.0552776148453109 14 15 13 1.5750699941414494 56 2295 57 2264 50 1692
4726 -2.4183137160536319 3.3911886010636842 4.8307667300708648 231 232 231 0.37021799327145044 53 124 50 140 47 255 43 352
17709 1.2008313398075177 2.9616751230592464 4.0479556793252449 71 77 67 0.63728183732231958 80 196 74 280 89 406
17834 -0.36022954596076417 3.2571087542456842 3.6057478219968364 69 26 15 1.521497796009684 69 570 72 705 73 1052
4851 -1.7316174750332498 0.60701904601637302 5.9539729069718215 15 3 2 0.28040227992544142 53 1614 50 1598 47 1709 43 1598 96 1271 95 1341 93 1441 94 1459
4845 -5.6063290778165262 0.65669650109691502 5.6150048650301638 206 206 206 0.36321173812474744 58 2148 50 1491
17828 -0.72761827590364947 2.2652659816028966 5.5384480484988687 37 38 38 0.22992791866946286 100 1121 72 614
4841 -2.0305824806529222 -1.0997565712315047 5.0729634573209079 45 1 1 0.093421980835319524 66 1538 50 1483
17817 -3.1387611823777153 0.36065586645523928 6.5402033851815462 187 73 72 0.60610738560226485 100 296 72 348 69 19
4834 -4.7957484396754495 -0.70143827161739747 5.7334214985241507 140 140 140 1.4264300825228409 56 657 47 991 50 1429 43 638 43 1166
17816 0.40230772883850774 3.6523164518808771 3.3658110810524287 236 120 47 0.54772710594002672 69 538 72 344 73 674 77 455 79 487
4833 -2.2155134060957185 -2.1363172210621868 6.3236153548733123 204 208 207 1.4727942937794281 56 1057 50 1427
17808 -0.41398062844495576 2.4262845630268988 4.4555548549301127 3 4 6 0.70317483783860679 69 144 72 254 73 472 77 454 76 306 70 423 67 291
4825 -1.9649733735367265 0.40765038630864947 4.6746483951052529 196 109 115 0.23262998845582145 57 1163 47 1601 50 1360 96 1154 95 1227 93 1305 94 1306 97 1449 92 1291 99 1406 98 1596 100 1420 86 1554 49 1547 44 1715
17807 -0.51950446696702457 2.667177655614474 3.8425512742031973 240 179 151 0.23534476955579117 69 245 72 253 73 229
4824 1.529156959240896 1.0665837208700406 5.1285340352489381 222 75 35 0.97157828881107877 53 1294 50 1343 56 1341 47 769 58 2249
4695 -3.7719224739627877 2.6288265151906129 5.3873291331454949 130 131 130 1.9735309318273435 60 2391 57 2340 66 2148 58 2260 56 2291 53 1646 57 514 8 977 17 1075
17678 0.024726210558961823 2.5215007536672975 5.2279743531359602 0 0 0 0.52681089471102827 69 53 71 40
17803 -0.37098908911240169 2.579468988261346 4.1612363504659688 236 93 27 0.85357224074900584 74 204 80 226 72 222 76 155 89 285 100 551 98 587 83 204 90 232 85 293 87 288 82 282
4820 -1.2464093461213139 2.9268165982721257 3.8776056304823849 90 100 92 0.30237652496549894 53 1236 50 1265 47 764 43 775
4818 -2.1693897177164332 0.40949634226524567 6.5138304975582617 109 111 108 0.71959026724446795 53 1109 50 1246 47 1744 43 1555 3 286 64 433
17801 0.21129620386884429 2.5836644659310397 4.3191419009750751 246 153 71 0.49435552024042373 69 193 72 198
17798 -0.12196555792874686 3.1737092410949241 3.5903044390234964 220 137 71 0.08826282270401925 69 208 72 152 73 171
4815 -4.684300296755386 1.7428740274997212 5.8421861614651416 128 128 128 0.47599863554342614 53 2051 50 1230 56 1772 47 986
4686 -0.48019086966455454 2.4732258231781152 4.3132430176474568 111 20 7 2.0562294126355281 58 799 56 785 53 1251 66 2227 57 1303 58 2177 50 1270
17669 0.24536746685302874 3.6161526000637738 3.4647315810094614 240 177 127 1.1389348445281777 92 1231 97 1331 99 1010 98 1030 100 1125 91 1012 86 912 49 1100 69 507 80 525 71 526 74 489 72 623 73 615 77 534
4813 -1.6631793594201503 1.3954816536502155 5.9643842127051911 176 178 177 0.23463694296653861 53 925 50 1201 47 944 43 1753 7 600 96 1625 95 858 93 598 94 1045 92 1724 97 1124 99 1157 98 1722 100 1219 91 1182 86 997 49 981 54 1324 51 1007 44 1030 45 813 46 740 80 662 71 493 69 483 74 469 72 591 73 463 77 539 76 601 75 556 81 445 78 653
4684 -2.5418617661434553 -0.57541488635755311 6.9203749343138856 95 96 96 0.79157292559563686 58 1253 56 1624 53 2048 66 1262 57 1091 48 1056 58 1573 50 1470 14 315
17667 -1.6393839820846252 1.7051387043422275 5.8214428094316055 209 209 209 1.6095735621089313 100 648 49 782 54 1241 51 795 44 863 45 800 46 825 55 836 63 837 62 839 61 869 59 887 69 637 66 355 57 348 58 386 56 305 53 268 50 275 47 291 43 263 17 410 7 257 4 231 5 203 96 374 95 503 93 391 94 390 92 505 97 412 99 270 98 425 100 279 91 252 86 470 49 253 54 353 51 341 44 338 45 324 46 335 55 341 72 940 73 509 77 300 77 689 79 312 76 248 76 608 75 227 78 266 70 210 65 220
17794 -1.3158967574297733 -0.045491392150578985 4.5717334516975239 20 4 1 1.9785250506032739 80 40 72 102
4811 -3.467485913769254 2.4821817352699087 5.4381272027921979 137 139 138 0.44637160064105968 56 1271 50 1192 47 854 43 1477 96 1055 95 1065 93 1071 94 1191 92 1318 97 1419 99 1467 98 1472 100 1496 91 1476 86 1418 49 1416 54 1042 51 1390 44 1436 45 1337 46 1891 55 1580 63 1615 62 1734 61 946 59 1281 39 1109 78 158 75 802
4804 -2.1503623866807424 0.16943580848335296 6.5845147331116687 70 78 77 1.1482170278636146 53 1046 58 713 50 1172 17 339 24 554 7 578 4 488 5 268 3 284
17787 -0.22542816009840749 -0.24663482431293562 4.6741736833207881 34 4 3 0.71647037425628024 80 80 72 39
17780 -0.81201250157782978 3.3346581659627801 3.5948542131771308 204 204 203 1.4131601807320764 51 85 44 131 45 114 46 122 55 118 63 169 62 169 61 180 59 177 39 175 69 213 74 66 71 71 80 69 72 243 73 279 81 112 78 111 70 131 89 103 83 108 90 103 85 96 88 164 87 91 82 126 84 184
4797 -2.8430198001026801 3.2376757721166078 5.072101966440667 210 212 211 2.1753199633404199 53 2201 50 992 47 800 50 719 24 930
4668 -1.5165575698472054 2.4208999704649643 4.4669721724026843 96 96 96 2.018949565625169 56 799 53 970 66 1383 57 1224 58 1451 53 703 50 722 50 976 47 728 47 1303 43 844 43 962
17651 -0.7493363543870325 1.1457993302765277 6.0667383652055928 62 62 62 0.082206874395062399 80 975 69 1004 74 951
4794 -3.2062474740244569 3.2322454918533516 5.1406935093854136 190 190 190 0.28315848663966026 56 1874 50 969 47 2029
17777 1.5427770398804761 4.0332064471470987 4.639826713465844 137 139 135 1.0044028392123867 49 502 54 487 51 545 44 528 45 510 55 644 63 572 81 779
17771 -2.1760027816707956 1.6091453228282404 5.8896136042027329 116 118 117 1.5430114173496443 54 1456 51 1760 44 2065 46 2041 63 2183 74 1013 98 1563 100 1155 91 2097 86 1717 49 1679 54 1251 51 854 44 1104 45 1081 46 885 55 886 63 1026 62 1376 59 1098 61 1359 69 1024
4788 -2.1999965658374916 1.9321689572331593 5.4921006934802206 209 209 209 0.50190675993005407 56 675 50 924 47 906
4786 -5.1881693644337528 -0.66327021896387506 5.9934663202063989 109 109 109 0.17169630028835667 56 1719 50 915 47 1665
4785 -7.8846405195852869 -1.3153082070498774 9.1112403106677853 113 113 113 1.1338214708416954 57 1767 50 910 47 1385
17768 1.3773375467521534 3.8805345736930916 4.6735783448100747 126 127 126 2.6516708154571202 54 506 51 549 44 531 45 511 74 166 54 2100 51 2012 80 1048
17764 -0.33275032121690784 1.7689342215908677 5.751097597292488 79 80 80 0.63150166073538949 69 952 74 991 81 515
4781 -2.0286519544602175 1.8817938741217468 5.1361367660276018 185 185 185 1.3011786434379209 56 883 50 867 57 1434 47 892 58 881
4779 -1.3265808392197755 1.8211720226406829 5.7581417544910858 213 215 214 0.36234006808718144 53 517 50 829 43 805 7 265 96 715 95 498 93 465 94 806 92 402 97 568 99 535 98 568 100 846 91 811 86 827 49 520 51 524 44 834 45 835 46 829 55 537 63 846 62 540 61 875 59 567
17756 -0.53719920571564439 1.9125308409108837 5.6962398699736614 71 71 71 0.57020817592799444 51 735 74 848
4773 -0.79746646278834032 2.7585388595697178 3.8686775256292698 241 146 96 1.5922486942374663 53 314 50 740 47 1192
4762 0.01004695658006706 -0.75573862963480498 4.8061069514468127 203 82 81 0.12974719897194656 57 1063 50 687 47 674
17733 -1.8214937879558022 2.0033064037636028 4.3514759855535372 115 117 112 0.27009930129894938 71 605 74 571 72 552 77 1018 75 699 76 736 81 943 78 704 89 592 85 721 88 949 82 510 87 524 84 518
4750 -4.2163923326360671 2.4884410673912876 5.4932877231845731 125 125 125 1.1991765887141383 56 538 58 555 50 595 26 661
17604 0.47927147824768179 2.2002080394446635 4.4949945080448721 137 84 66 0.57448775375351602 69 602 74 631 73 793 77 981 79 980
17726 -2.1146470519517777 1.9231684045481332 4.8539330297248462 12 13 10 0.70816010570677257 71 768 74 505 89 703
4743 1.1361576657953796 -0.10883797074706929 6.6798511766195201 93 95 94 1.1228967701300991 53 1922 58 1291 50 401 47 347 43 831 66 726 48 1048
17724 -0.98716324547353573 2.3598222446474413 4.1583400531829984 74 76 71 0.11790397877570667 80 727 74 477 69 751 81 494
4741 -1.1237187862290139 -0.30633084904020585 6.361337607438287 161 17 17 1.5246505784781714 60 456 48 663 47 264
17722 -3.3461987097378851 1.035593102591611 6.9392098410429623 0 0 0 2.7284131574322492 49 120 54 945
4739 -0.63961799191177493 -0.32875954576513627 6.2762816025514523 88 1 1 0.96410537915138017 56 1799 50 358 43 290
4610 -3.3563261953273646 2.3549885129790753 5.5063622721092242 183 185 184 0.14055696517423588 57 1962 53 1697 50 1104
17593 -0.15634347946067076 2.3924577187179854 4.4671300608484197 98 98 92 0.17018627390274443 71 469 69 449 72 474 73 495 77 489 79 488 76 508 75 755 78 588
17719 -0.2429432852219216 1.6201531493280423 5.8432052667095888 75 75 75 0.31975363851304561 80 436 74 413 81 398 85 534
4736 -1.8411976167860979 2.840222473647446 4.2363162108128876 23 23 23 0.84497959336365136 57 228 50 336 56 213
4607 0.024349249061654359 0.86758966267401805 6.2201105822331737 122 122 122 0.19327359891065876 56 983 53 1674 50 1778 47 1229 43 1027
17590 -0.3799516612115803 2.8048839078826688 5.2720096566382102 42 44 43 1.3112304704130535 71 186 100 699 69 418
17715 -1.9276223154982599 1.8187532926758732 4.9790659200719887 40 42 41 0.98343307880070785 80 105 74 338 81 145
4732 0.74489107917279518 1.4732534280312151 5.8892159343400863 202 202 202 0.096163296976919985 53 179 50 205 47 217
4730 -1.7490447243982001 -0.3053069728105649 6.7722138979940922 195 108 106 1.5480968810638673 58 297 50 189 60 224 43 1335 12 554
4601 0.58064216448439765 -0.51304893079330405 6.9172143942374928 66 66 66 1.4315692511964764 58 717 53 1617 47 547 43 1756 11 333 48 1040 8 267 24 282 22 852
17584 -1.5052230352703961 2.1066088606494309 4.3359665318171068 143 149 145 0.36890203983992953 71 411 80 242 69 379 73 408 72 387 74 235 77 402 79 413 81 237 89 226
17711 0.55276938869991088 2.2458438683472091 4.770961643927305 100 14 6 0.29359791695575477 69 445 71 273 74 292 72 427 81 289 89 259 83 258 90 262 85 258 88 291 87 243 82 270
4728 -1.1275305326687313 2.931094651805028 3.7687281693672712 105 114 107 0.12914387240440434 53 149 50 150 47 212 43 226
4599 -2.2295721968726521 0.43920597409745565 5.9657382628651163 168 91 89 1.7803616222852632 56 2300 57 1124 53 1586
17582 -5.2266197603811877 0.89254101194040925 5.4220254169076219 204 204 204 0.72650003959521381 80 384 69 370 77 741
4725 -1.5765139655302118 2.2433308545979362 5.5743197578167125 11 11 6 0.88091018608302429 53 137 47 817 50 637 43 829 17 117
4723 -2.7361759889767607 0.16731830502499115 6.7217058373478276 156 18 16 1.3999739304340608 53 1391 50 68 24 26
17688 0.98886522916661557 2.970502328006404 5.147420559617629 246 172 98 1.1948422992003027 86 97 74 119
4705 -2.6246899690671377 0.0030234041879431033 6.7495537127903917 217 186 183 1.780830231702847 56 1655 53 1080 57 2361 50 679 24 218
4576 -3.2344193230116267 0.13960671976403904 6.7385840569975333 112 112 112 1.5991534379514527 56 1041 53 1350 58 1275 50 1154 57 1147 66 1454 48 1883 60 1929 52 2153 47 963 43 1445 40 1092 42 1105 38 1005 35 943
17559 -0.94442830368763198 2.3059352328021454 4.2888575474565584 13 14 11 1.1350238648165993 71 192 80 179 69 150 73 335 77 330 79 350 76 366
4698 -2.21059670519023 -0.34706962222529902 7.1303978037408378 214 191 189 1.1479490307297056 56 1208 53 193 50 1158 47 979
4682 1.0137610179139578 2.1234021647488563 5.5729817581749144 162 162 162 1.8157333019705804 48 1954 60 2131 57 2046 52 2220 56 2045 48 1943 60 2135 58 2164 53 2101 60 2432 57 2052 50 2024 47 2161 42 1708 42 1709 38 1584 35 1726 35 2004 37 1745 37 1987 41 1640 32 1078 41 757 31 600 31 1518 29 975 34 903 34 1400 33 870 33 1971 36 883 30 949 30 1950 28 564 20 643 20 800 23 895 10 754 16 765 6 806
4679 -3.1880027045834014 0.89059447752516696 6.242389464607041 152 154 153 2.0067250162678278 48 1020 60 921 66 1202 52 1761 57 1133 58 1706 56 1822 53 2275 60 1545 15 937 66 1766 48 971 60 941 66 1159 52 1765 47 1627 43 1346 43 1353 26 1174 21 1002 14 659 14 1070 12 543 12 658 12 895 8 743 17 798 18 506 18 509 18 1088 7 776 4 709 5 654
17662 -1.5034727217695394 2.0400819514265716 4.4648003641959422 38 40 38 0.69656687444730725 71 175 80 173 97 1533 98 2000 100 641 96 804 95 843 93 780 94 590 92 610 97 634 99 591 98 612 100 640 86 385 91 406 49 390 54 405 51 391 44 450 45 348 55 374 46 382 63 373 62 377 61 246 59 383 39 358 69 211 74 153 72 247 73 269 77 267 79 270 76 268 75 245 78 301 70 281 65 250 67 349
4675 -1.7309570682903308 -1.5633151357458785 5.2756281044658655 126 86 83 1.0246689519691472 60 1827 15 571 48 1126 52 1232 57 1095 58 1008 56 1063 50 922 60 1090 53 1187 47 994 43 1177 40 918 40 1436 52 1233 42 933 42 1442 48 1136 38 869 38 1346 35 879 35 1344 37 885 37 1408 41 932 32 952 32 1301 31 929 29 923 34 855 33 1496 36 1067 36 1688 30 1560 28 1473 26 565 42 1443 11 529 21 612 14 544 12 608 8 844 17 1029 18 986 7 614 19 896 24 688 4 478 9 994 13 558 25 508 25 734 13 579 27 732 27 733 20 740 23 544 23 765 10 602 16 813 5 628 3 492 22 565 96 956 95 1170 68 415 70 563 65 476 93 1155 67 416 64 438
4546 0.90548761331707905 0.73487643267320912 6.2780947250151611 138 140 139 0.25157709052632826 58 926 53 1035 50 986 47 1262
17529 -4.7189188994795517 0.89869542908532973 5.6876783624895673 34 35 33 1.1225958148645561 49 7 54 9 86 8 69 11 72 4 73 14 77 14 79 12
17646 0.34998567993861696 2.4060289239357635 4.4622715608859798 68 24 12 1.6079463044758782 80 682 69 962 73 1032 72 897 77 1052
4663 1.1402067678561076 0.7392178849226958 5.5266532584956201 42 12 10 1.1219115194436975 57 7 58 7 56 9 53 8 66 7 50 13 47 13 43 12
17644 -0.73529400721566063 1.1047082096505512 6.1018736474678104 10 10 10 0.10275976836639897 71 988 69 953 72 947 77 1004 76 1076 75 862 78 890
4661 1.5732626988832512 1.4809741273429633 5.7158056976355063 137 127 123 1.5965276568734978 57 1991 53 2303 50 1962 47 1167 47 1353 43 1946
4532 -3.6980579180174002 2.5983376884317408 5.3993965266910351 132 134 133 0.26103565788203287 56 2102 53 848 50 1207 47 837 43 1098 96 1329 95 1418 93 1312 94 1319 92 1404
17515 -0.84806658995433359 1.2285307428759078 6.0251096276349436 15 15 15 1.1101193155601778 80 1036 71 1071 74 986 74 1014 81 860 89 811 83 843
4653 -1.0948841481804654 2.3959014079681813 5.0534301747205532 3 3 1 0.62436724560580315 56 1887 53 2204 47 706 43 751
4652 -2.8922466133126448 3.3859229991724553 4.9431624344582605 223 223 223 1.8922265063472785 56 687 53 2193 50 474
4651 -2.3581557691841524 2.4647687450459701 5.3760351005724107 17 22 19 1.3981867741266043 56 1923 53 2177 43 74
17634 -6.5598068344959088 0.81744503420194536 6.9454147096292376 106 2 0 2.3881764230503721 71 221 69 852
17630 0.52648863162751203 3.8303606409563926 3.3322993519615807 240 100 37 1.824602227544083 80 714 69 813 72 776 73 669 73 949 77 498 77 860 79 681 79 682 76 427
4647 -2.3005614657837961 2.6439457706758147 4.4891522301546232 211 215 214 0.16584317995167269 56 2289 53 2120
4643 0.19599972270880059 2.3276450781055398 4.4938958647868086 71 75 70 0.5274765590926036 56 1249 53 2094 50 2073 47 1342 43 1998
17626 0.015919360531997568 2.5368505160663335 4.3061608820928514 223 61 22 0.22780262173605068 71 846 69 794 72 942 73 859 79 1109 76 1091
17620 -0.22702986986541082 3.5547498824618882 3.3407688720840172 233 152 111 1.9553278161255128 71 597 80 1055 69 729 73 848 79 724 75 590 78 581
4637 -1.541699964331926 2.6024014154436812 4.1235204205363587 100 105 101 0.47343508348442342 56 1998 53 1994 50 2185
4508 -0.34437138932914996 0.59882985947308209 6.3437368523930395 98 91 88 1.4322556538513833 56 2189 53 617 47 409 43 277 43 1820 47 1584
17491 0.13620312609133142 3.316621278331604 3.5329202469607512 225 148 111 0.22434087489572629 80 728 71 1012 69 704 74 659 72 629 73 619 77 699 79 668 76 493 75 529 78 521
17617 -3.5705009118724904 0.93495968208138025 6.235721250086276 204 60 59 0.62722835478644012 86 122 69 718
4634 -3.2923093261150282 2.0781497647495994 5.7103177068744015 178 180 179 0.71479362358606557 56 2141 53 1944 50 1845 47 1445 43 1484 17 1141
17616 0.13632208417968 3.4188826600940985 3.472334340121082 108 53 32 0.35198745320442182 71 764 69 714 72 832 73 622 77 654 79 470 76 478 75 282
4633 -3.3153149526311876 2.1254174612806045 5.6499987834726477 179 180 180 0.56151321943841781 58 1789 53 1935 43 1478 5 535 96 1386 95 1394 94 1335 92 1295 97 1439
4504 -1.6084727697167478 2.4799548659692054 4.0915021049033857 95 100 95 0.15324478529163255 56 513 53 487 50 473 47 474 43 540
17487 -0.23236771016357199 1.8904258713730575 5.7067265310793163 19 22 21 0.089749663273166233 80 979 71 995 69 934 74 1000 72 990 73 998 77 1011 81 928 89 863 83 775 90 755 85 773 88 880
4629 -3.8587634812861915 2.4538438067870612 5.4804633066636095 170 170 170 0.11761362939887196 56 1297 53 1908 50 1100 47 1378 43 1574
4615 -0.44163265960945924 1.1971351812262561 6.0517871303729889 162 161 157 0.10209753987040233 56 2093 53 1761 50 1772 43 1720
17597 -1.2733202799372605 3.9021774077431211 4.699378442817058 52 11 7 0.089818804850195388 86 2007 69 526
4614 0.95633683700364203 0.53627642016996169 6.3888816544247238 117 121 120 0.08698343010620728 56 2134 53 1758
4485 -2.9780039221169301 2.4432720549785474 5.5678674345248238 204 206 205 0.36210423519255608 56 242 53 271 50 271 47 293 5 518
17468 0.89725477335920389 4.0899657974068804 3.2538827431278214 240 127 59 0.078263048550114234 80 838 71 889 69 520 74 688 72 442
17595 -1.7293764546584214 1.9075640583093028 4.833387282057461 49 51 46 0.82608434422464549 71 521 80 329 69 514 74 334 72 523 73 663 77 619 79 492 76 591 75 634 81 332 70 512 65 804 89 311 83 329 90 307 85 307 88 348 87 588 82 386 84 440 67 696
4612 0.89160741641453434 0.69381470670178746 6.2891215914429663 113 113 113 0.13339544721489804 58 1972 53 1727 50 1973 47 1854 43 2062 22 1082
4606 -0.58521090336571879 1.0650691899930715 6.1316129867672347 179 178 177 0.24630134458623668 58 2027 53 1668 47 2206
4477 -3.5600500470776177 1.2256661176583863 6.0520129089277663 138 138 138 0.18269151379865875 57 165 53 202 50 197
17460 0.091509582572692552 2.6820578085507689 4.0272189772868128 10 9 6 0.54494296760043248 80 850 71 845 69 779 74 803 72 917 73 850 77 870 79 665 81 476 89 463 83 306 90 434 85 295 88 336 82 288
17579 -0.51695474254709284 2.5650327068837688 4.2940139319435993 0 0 0 0.25009277104630279 71 364 80 358
4596 -3.347829759851368 1.1438567474125021 6.083290870618363 164 165 164 0.33358718904580054 57 1500 53 1576 43 1337 96 1187 93 2080
17569 0.35661366028435332 3.1132401590345005 3.8737113729763175 212 61 18 0.38590795906660019 71 223 69 234 72 287 74 340 73 322 77 207 79 215 76 190 89 288
4586 -1.401613307920623 -5.0249813816214193 12.726967663597648 247 239 234 2.5257019757308625 66 1008 50 616 47 439
4457 -1.7208084776248469 2.3760069670301394 4.1195044947305961 105 109 108 2.4389882474463409 48 780 66 819 52 768 57 789 58 769 56 750 60 813 66 328 57 316 58 510 56 505 60 360 48 342 52 326 60 2266 53 535 53 980 50 526 50 950 47 810 47 1324 43 862 43 1040 40 335 40 773 42 324 38 327 38 1213 35 237 35 1822 96 805 96 1586 95 846 95 1676 93 883 93 1662 94 1468 94 1482 92 1439 97 1576 97 1584 99 1641 98 1642
17440 0.13744257465071805 3.5901845223592463 3.4101078375581468 51 48 39 0.37051384587053526 80 713 71 775 69 678 72 637 73 357 77 242 79 469 76 319
4582 -6.0188457283391692 -0.76515482648158029 6.0804089297127266 124 124 124 1.2426332262418656 58 216 53 1429 50 905
4453 -0.34062371427535892 -0.16459539073555601 4.8448143125461787 49 17 17 0.97362655150255439 56 1797 43 1116
17436 0.089951753135743995 3.3390805305570539 3.5220496492171494 94 67 54 0.22198214896848659 80 701 71 763 74 668 69 713 72 831 73 623 77 614 79 471 76 482 81 677 89 643
17560 0.0068382121464747305 4.166720852268722 3.3973078261428542 244 243 238 1.7582050195596612 69 163 74 163
4577 -5.4742742538171809 0.887642393123111 6.2182097043061342 224 224 224 2.2399545425203655 57 1895 53 1361
4448 -3.1329560977759972 1.9340922261714868 5.7132156584190303 191 193 192 0.91477168420201704 58 1825 56 837 53 605 50 591 4 508
17431 0.02995620399685503 3.4394439165301911 3.4725340121594446 246 144 55 0.36277806531371848 80 759 71 742 69 725 74 726 72 506 73 627 77 629 79 692 76 530 75 445 81 689 78 398 89 624 83 648 90 655 85 678 88 763 87 676 82 548 84 700
4575 1.5506859971090383 1.478999427796015 5.9241912518336468 152 146 143 0.51114273703538049 56 800 58 757 53 1333 50 758 47 747
17553 0.45659731051624253 3.6016259124865555 3.5412241599413621 245 208 194 1.3074701100330628 80 167 69 131 72 127 73 71 77 33 90 325
4570 -0.97437629026039796 2.3409911527078502 4.1466383364090804 59 61 58 0.28023407193482208 56 1145 53 1293 50 2166 47 1836 43 2017 96 1823 95 1522 93 1524 94 1796 92 1783 97 1833 99 1777 98 1799 100 1799 91 1542 86 1048 49 1426 54 875 51 1051
4569 -1.3548693879168126 2.5721715290334481 3.9157598076418827 0 0 0 0.058721784781476535 60 1464 66 2173
4440 0.98413918192962435 1.6769511499542058 5.8092094659381024 185 185 185 1.1915479411233236 57 363 58 355 56 497 66 913 57 750 48 328 60 375 52 409 58 762 40 801 52 800 42 261 42 808 38 412 35 403 37 262 37 1165 41 386 32 350 32 1249 31 381 31 1178 29 435 29 886 34 437 34 1802 33 432 33 1536 36 442 36 875 30 442 30 1514 28 425 28 841
17423 -0.48417563196780455 3.1886151052984677 5.0567628681045393 67 74 67 1.3820177382364056 91 1531 71 681
4558 -0.1387333174510065 -1.3165754039996218 4.9163889222250985 181 73 70 1.81512462392236 66 676 53 1200
17541 1.3462709470617851 3.8037698591287548 3.6279318369608946 237 180 138 0.1521405655220458 71 84 69 55 72 66
17519 -2.0466720968851444 1.5053481400011979 5.9257677511077889 124 124 124 1.7362304689879824 99 1554 100 2141 91 1774 54 1971 51 1621 44 2033 46 2024 55 2035 71 729 96 814 95 1112 93 1108 94 1114 92 1081 97 1128 99 1117 98 1120 100 1229 91 1117 86 1031 49 1067 54 1270 51 926 44 1062 45 1128 46 990 55 1022 63 1068 62 1341 61 1320 59 556 39 1099 80 805 74 750 73 957 77 912 79 790 76 802 81 844 81 847 78 790 70 848
4536 -3.0040892113617863 2.105081426711084 5.6320883988546075 200 202 201 0.50088920378983171 56 1309 53 867 50 1119 47 845 43 1104 4 518 5 810 22 875 96 1007 95 1063 93 1040 94 1174 92 1134 97 1218 99 1204 98 1198 100 1347 91 1282 86 1341 49 1137 54 1643 51 1139 44 1203 45 1190 46 587 63 633 62 631 61 631 59 855
4407 -0.88262076306547821 2.349920680825814 4.3966524496736268 59 66 59 0.71390214184240053 58 2069 56 2251 53 853 50 2172 47 1149
17390 0.19682906493992511 3.5540326387212113 3.4156754479229177 239 143 44 0.221389983058013 80 707 71 586 69 509 74 547 72 633 81 687 89 625 83 654
4527 -1.2950983968946523 2.9569582730160486 3.8533681698379927 65 79 70 0.32932539326783988 56 717 53 740 50 750 47 1111 43 773 96 1796 95 1516 93 1547
17510 -0.72371236972131625 1.4169579681338547 5.9524554654155892 69 69 69 0.13217101600890599 80 1034 71 1055 69 1016 74 989 72 1026 73 993 77 556 79 977 76 541 75 1031 81 510 89 872 83 554 90 577
4525 0.1869589016689388 -1.4046970839367143 7.0753825838822353 185 13 15 0.1283437170024152 58 988 53 687
17502 -0.20425010163737686 2.3646901377380209 5.4638662907882436 68 68 68 0.44806069265801729 80 598 71 1041 72 1055 77 1029
4519 -2.2066032534004703 -2.6485168904363245 7.6632326581270513 216 159 158 1.7247402524523452 56 1686 58 1552 53 657
4515 -4.5962566242530025 -1.0073858220033951 6.0724406150323658 100 100 100 0.47810003321292394 60 1067 53 646 47 659 26 354 17 224
17498 0.1533660190650098 2.8061888687603882 5.2477797512155124 33 5 3 0.093769415673164463 80 905 71 1032 74 808 81 764 89 530
4505 1.6623280979715838 1.6634110348826461 5.7812932583875565 167 161 157 0.24607610084017981 56 480 53 504 50 509
17486 -0.36183950041895968 1.768500039945313 5.8147133242201816 66 66 66 1.2908889555003868 80 634 71 994 69 946 74 931 72 991 73 1004 77 1027 76 1056
4503 -1.5027030359607851 2.9477854887840151 4.4256488414489148 7 9 6 1.1941172879604063 58 803 53 469 50 707
17482 -0.085838098001340041 1.9965744652018549 5.6535318571665236 16 16 16 0.14927193447149831 80 974 71 985 69 975 74 987 81 927 89 746 83 778 90 759 85 781 88 965 87 794 82 729
4499 0.1133983116901507 -1.0838289752945105 6.6936228297217397 175 12 11 1.1724138410405063 56 718 57 1690 53 438
4370 -2.383892799553585 2.5487068478048087 4.7708800167685634 220 220 220 2.5110495407285258 48 495 56 1930
17353 1.1939491439892569 3.9829967368058941 3.2885329845509679 244 183 156 0.4351286120203337 80 362 71 487 69 300 74 309 81 453 89 347
17474 -0.32096494633430983 2.2606491268483118 5.5262140978222147 22 22 22 0.14593199179528776 80 890 71 918 69 988 74 812 72 1021 77 988 79 1024 76 1034 75 992 81 796 89 794 83 816 90 799 85 810 88 901 82 762
4491 -0.22288312281305447 -0.78301062269738619 6.9897255684195594 206 108 108 1.4195249500526967 56 726 53 379 58 1272
4362 0.26187175827766462 0.37044531066271424 6.481403634554721 101 101 101 0.23444651713266848 58 1598 56 1804 53 1920 50 1877 47 2061 43 1659
17345 -0.21588229918640256 1.7892982143443261 5.7586117751774903 95 95 95 0.27057680786442334 80 440 71 445 69 428 74 518 72 685 81 508 89 514 83 525 90 523 85 521 88 902 87 548
4484 -1.5029802316574652 3.1521089571596015 4.1130114337390058 26 27 24 0.51170233397224507 56 357 53 264 50 307 47 496
17467 0.26005407274459597 2.9882627803898743 3.744626274561389 216 71 26 0.30547794853742549 80 828 71 885 72 796 77 873
4469 -5.4399754995892184 -1.0948922446203477 5.9104404438469356 116 116 116 1.0748856047054642 58 472 53 146 57 129
17452 0.14024466609255601 3.3943497807339802 3.4981162696936789 238 145 85 1.073375145191481 80 733 71 807 69 504 74 666 72 632 79 468 76 467 81 649 78 387 89 608 83 865 90 664 85 627
4463 -2.4408862315132884 3.1591178415331784 4.9375746213308602 231 231 231 0.68881377320557535 56 87 53 81 50 85 47 75 43 965
17446 -0.67512109498696193 3.3375086490033938 3.5752426006459892 105 110 106 0.27049208110254536 80 750 71 784 69 741 72 699 73 719 77 1020 79 752
4459 0.82015445211810523 0.38720711034963323 5.7678792954408751 121 123 122 1.1188328743037541 56 24 53 22 50 22 47 30 43 23
17442 -1.6882040906918374 2.0996572318496054 4.3048421698504757 74 76 71 0.36674487400571226 80 739 71 780 69 819 74 717 72 759 73 707 79 907 81 628 89 593 83 645 90 438 85 491 88 494 87 519 82 308 84 338
17416 -0.77488218983724722 0.94791743697058828 6.1835883190309096 70 72 71 0.13669352192556761 86 707 71 653 69 432 72 429 73 672 77 421
4433 1.2851366588413102 1.9664555430932489 5.6766051713407988 159 160 158 1.829949443468718 60 2022 57 2124 48 2015 56 1975 15 1024 60 1252 66 1427 48 1384 52 1009 57 695 58 1442 42 896 42 1693 37 1164
4304 -4.4550799905966052 -1.9558744933690204 6.5161866050540755 113 113 113 0.6795045003940291 66 205 56 1235 40 361
17287 -1.7134971435213153 2.1852059810561926 4.2224404945467766 37 42 36 0.35609303820544874 80 248 71 252 69 218 72 240 73 271 77 259 79 275 76 209 75 208
4426 -4.8147298473565341 -0.88340351983139354 6.193722644851027 133 133 133 2.3988998865131919 48 1080 66 1297 56 1072 60 671 56 1075 53 1186 50 916 50 919 43 643 43 1169
17409 -0.58916142403956029 3.0566493118877527 3.7227757035589035 55 62 54 0.15058602879859939 80 736 71 623 69 562
17404 0.46838302664289239 3.517691309767268 3.3361071274845182 235 119 41 1.8782562502683859 80 575 71 612 74 541 81 520 89 324 88 165 82 185 84 218
4421 -0.037593357234607279 0.75316604633555051 6.2713341370461864 120 120 120 1.4540072738972907 60 1608 66 1667 52 2393 57 1489 56 1559 52 2384 57 1449 58 1900 53 1686 53 1709 50 1726 50 2256 43 1609 43 2186 40 2156 42 1501 42 1511 38 1531 35 1955 37 1446 41 1928 31 1505 29 1363 34 1474 33 1462 36 1132 96 1829 95 2000 93 1925 94 2017 92 1947 97 2084 99 2102
17395 -0.049248412722361759 3.1760065651086742 3.6212244660003896 134 123 119 0.44558278803049056 80 577 71 594 69 672 74 493 72 638 73 371 77 348 79 310 76 304 75 275 81 469 78 262 89 495 83 487 90 495 85 635 88 402 87 648 82 471 84 464
4412 -2.518875237267856 2.0033009382346809 5.6383076566196468 207 209 208 0.13874581158261193 58 1869 56 2324
4283 -2.3732886222207368 -0.74644072361416247 6.7462776766674528 171 19 18 0.55530373835382285 57 373 53 1460
17266 0.03467031223741171 2.6529149522822104 5.2206721834944663 75 60 57 1.0173649942619503 80 190 71 181 69 447 72 958 74 250
17394 0.21518691677548429 3.4985081436029515 3.4426791482242294 65 36 24 0.23362839264428234 80 581 71 593 69 502 74 544 72 618 73 363 77 470 79 462 76 314 75 262 81 521 89 655 83 680 85 890 82 665
4411 -1.6530894781136769 -0.23913288979774283 5.4314683050735351 159 31 29 2.313354446801648 60 1070 56 2322 53 1349
17382 -0.002465396214292643 3.2855604282548518 3.5511226728316334 19 73 75 0.2182253235832855 80 582 71 569 69 513 74 542 72 640 73 375 77 347 79 343 76 448 81 883 78 260 70 237 89 642 83 674 85 623 88 727
4399 -1.359657766732755 1.9673133891565284 5.6971855664947384 192 192 192 0.68386286357190329 58 2258 56 2204 53 1329 50 1041 47 1245 43 1044 24 52 96 1307 95 896 93 1395 94 854 92 1105 97 1850 99 837 98 859 100 953 91 839 86 785 49 652 54 861 51 1675 44 862 45 789 46 851 55 854 63 902 62 813 61 890 59 901 73 91
4398 -2.2301552438822063 2.1989668735181684 4.371952026596575 41 51 44 0.084638594628671113 58 1023 56 2203
17378 1.1547114000900636 4.1506764555476598 3.1991345276881717 245 141 60 0.43613825195952677 80 832 71 562 74 683
4395 -0.51920088964521494 1.7055464281125539 5.8224656488653661 205 205 205 0.63652546979122404 58 2234 56 2186 53 2170 26 1165 48 2320 17 1067 24 1047 5 972 22 1106 68 930
17377 0.99403400236351669 3.9651296738827142 3.3086373519252077 223 109 56 0.17908488139249251 80 686 71 561 69 466 74 677 81 652
4394 0.63486094689137318 0.68772731169671031 6.307243332959894 140 140 140 0.1686754087888814 60 1584 56 2177 53 1759 50 1736 47 1283 43 2104
4265 -0.68259036381071025 1.2419465987980833 6.0467946950476739 176 175 174 0.40931698893131174 66 888 56 823 48 624 60 862 50 780 40 803 38 800 18 231 19 229 9 297 13 294 25 313 27 328 20 339 23 353 10 297 16 274 6 247
17248 -0.076980810551337223 2.4328324480050934 4.5211733232612517 7 7 5 1.0041216893762559 80 82 71 83 69 82 72 124 81 134 89 121 83 126 90 95 85 89 88 197 82 80 87 155 84 143
17359 0.69743572485380267 3.9276525423518427 3.3142644691504901 235 98 26 0.2760763318786883 80 512 71 515 69 343 74 482 72 456 73 462 77 315 79 293 81 634 89 648
4376 1.7732418325622039 1.5858776038965023 5.8406862022622272 86 65 62 0.18856554360226521 58 2098 56 1994 53 2082 50 2048 47 1325
4350 -3.9716549053553325 -1.9793734353821193 6.6065330628957106 137 137 137 0.94414795106952842 15 685 56 1698 53 1424 47 1014 26 677 8 710 24 591
4221 -2.1869077362147693 0.03093897135500849 6.5213255402869938 144 29 29 0.9078364488448053 66 759 56 282 60 742 50 105 43 1193 3 105
17204 -1.8919783732150008 2.4100982670064495 4.1887610444758714 74 83 77 2.8157530307671306 24 449 4 693 5 789 98 620 100 718 3 810 22 864 95 1608 93 1720 94 1499 99 1583 98 2180 86 1306 49 923 99 713 91 1261 93 260 94 387 92 458 97 460 99 709 98 618 100 715 86 892 49 906 96 239 95 250 54 996 54 1568 51 932 51 1438 44 1392 44 1396 45 1254 45 1389 46 1398 46 1888 55 943 55 1357 63 1402 63 1411 62 1024 62 1025 61 1114 61 1118 59 967 59 977 39 991 68 738 64 538
17322 -0.30871173402673857 2.7339535199646128 4.2752271893774738 226 179 170 1.165936952193332 80 354 71 353 69 327 74 215 77 462 79 453 81 746 80 847 83 748
4339 -4.8937992310463194 0.61212844812029188 5.8161320664504599 238 238 238 1.9032277668532651 66 1502 56 1633 53 1340 50 1498 47 624
4330 -2.5845234754995356 1.541971475990634 5.8894544561469058 193 193 193 0.1110199970184063 57 1594 56 1585 21 1097
4305 1.2336205488583039 1.8735392242542208 4.8924890927633857 192 187 183 0.41871606747472018 58 791 60 2011 56 1239
17288 -2.2850097047548528 2.0751502013840164 4.5312095475741074 43 52 44 1.8441336383237761 80 215 71 253 74 601 72 239 81 373 83 501
17284 0.95669681932072237 4.0802359464750095 3.2787859853272434 239 182 159 0.11412140487562972 80 313 71 238 69 232 74 371 81 358
4301 -2.6610626938579194 2.1558780063490266 5.6219594377152191 214 215 213 1.7916724251164491 56 1222 53 1664 50 839 4 858 58 875 47 408
17282 0.75820577398965949 3.8105299008203546 3.3353330704273305 247 207 195 1.0528711433389304 80 263 71 233 69 227 74 224 72 268 73 168 77 204 79 197 81 235 89 325 83 336 90 322 85 607 88 662
4299 -5.9607099365975191 1.3632003111868232 7.5428735551540473 37 37 37 1.420930684992137 57 479 56 1218 66 1666
4298 -1.0427946868466869 2.3247456387842624 4.1948671930964734 40 46 42 0.45783649910514651 58 1654 56 1200 53 1538 50 1316 47 1178 43 750
17260 1.0266872041435506 3.1318543187512793 3.9453261842159719 60 62 59 0.57814764229813043 80 140 71 140 69 85 74 138 81 93
4277 1.1662369481741033 0.063328796459207623 6.0569004082175661 138 75 67 0.94633852953157016 58 1627 56 905 53 1878
4268 -3.4822341201662241 2.5325055927605127 5.3669486071759875 183 185 184 0.44930116786267366 60 804 56 857 53 788 50 585 47 617 43 624
17251 -2.1766021220264076 2.1998186458832851 5.2830236105371089 38 38 38 1.8402456116372099 80 108 71 105 69 223 74 796 72 505 77 226 89 711
4267 -3.3373396503598118 2.5325276855875938 5.4220423698240294 162 164 163 0.19929402298649265 58 1055 56 856 53 879 50 934 47 939 43 1261 96 1011 95 633 93 1189 94 667 92 712 97 1152 99 983 100 1307 86 641 49 642 54 679 51 654 44 714 45 444 46 680 55 564 63 427 62 375 61 569 59 647 39 574
17250 -0.75453909071917669 2.382086538265122 4.3593364701526243 17 19 16 0.47387493237683465 80 106 71 104 69 102 72 113 74 99 73 101 89 84 81 98 83 94 85 84 90 135 88 98 87 84 82 77 84 78
4266 -3.5973012038337444 2.1924689286405754 5.5959982290287158 179 179 179 0.31736189760387346 58 897 56 852 53 599 50 600 47 564 43 576 96 612 95 1098 93 1011 94 1137 92 918 97 1173 99 964 100 1292 91 992 86 852 49 844 54 992 51 898 44 940 45 897 46 602 55 598 63 567 62 559 61 649 59 634 39 811 65 442
17247 -2.7788088456518443 0.45462894841085999 6.3738978045222661 164 150 148 1.8623402277988805 91 1605 71 82 69 145 86 620
4264 -1.417102319428384 2.5622173497071294 3.9708559794949188 149 152 149 0.44497794808503133 58 1348 56 815 53 1291 50 1315
4135 -1.6255747746806872 1.9920309458749226 4.4776945039178555 72 80 73 0.23307684076886609 57 1988 58 2195 56 2205 53 1743 50 1740
17118 -1.243459130468993 2.2594967615143382 4.2392125195675217 65 72 65 0.27683413052631867 3 817 22 882 68 709
4259 1.5875032475148492 0.78853779786909839 5.3678943699009762 210 56 17 1.9968037709447366 58 909 56 758 53 984 50 692
17237 0.84684441303660407 3.4064113223377968 3.4227723459561656 240 210 202 1.0366855930610075 80 67 71 50 69 37 72 38 74 95 73 22
4254 -2.2180508246798856 -0.42556284879379291 6.5070959637899692 90 90 88 1.8145328339477955 58 1258 56 672 53 377 57 1681 43 363
17215 -3.9194224755647196 1.0106942828341505 6.2013319297055789 133 134 133 0.51194507676970613 43 192 96 338 95 350 93 367 94 372 92 366 97 378 60 183 15 110 66 226 48 170 57 210 58 173 56 194 53 196 50 177 47 283 43 1212 40 156 42 148 38 145 21 96 22 404 7 180 68 428
4232 -2.7835033075295339 -0.40473698213234699 6.8922966391201657 26 26 26 0.25965128689030331 60 458 53 653 58 688
4103 1.2417484310866864 1.0943993583575722 6.1730779476384381 136 122 120 0.50463665608833541 66 2035 58 1834 50 2191 47 1949 43 1939
17086 -1.7036064427838609 1.6427604955202826 4.9771690712887438 79 79 79 1.1865340644773155 3 701 68 265
4231 -2.3066028969452632 2.318729065660674 4.2737188567027093 224 225 225 1.6694788983827975 58 567 56 368
17202 0.42705686123824949 2.2665707853035646 4.4942759962873655 76 76 74 1.5757121357564772 15 670 26 638 11 647 21 516 14 1110 66 561 57 326 58 534 56 508 53 495 60 377 48 169 66 1378 57 1300 60 1306 48 1193 52 1374 58 790 56 794 53 748 50 744 47 487 47 752 43 769 40 265 40 1011 42 253 42 993 38 987 35 933 37 1616 12 898 18 812 96 681 95 698 93 730 94 767 92 794 97 794 99 806 98 817 100 814 91 791 86 709 49 711 54 737 44 848 51 827 45 1018 61 955 59 1243 39 878 46 934 55 1113 62 884 63 1078
4219 0.80969525732190106 2.0928598937483862 4.9394039905387466 232 232 232 1.0495508222114232 58 249 56 222 53 229
17201 -0.87491052542981051 0.99544029906152787 6.1585784864428526 154 153 150 1.5401538807850668 60 1050 15 973 66 1221 48 1010 48 1670 52 946 52 2023 57 1033 40 1895 42 1825 42 1828 38 1770 35 1720 26 982 57 1477 58 1904 11 879 21 938 14 797 12 930 8 892 17 907 18 915 7 914 19 746 24 911 4 828 9 906 13 925 25 912 27 914 20 875 23 949 10 965 16 1023 5 816 3 828 22 816 96 1896 95 1968 93 1588 94 1615 94 2115 97 1620 97 2119 99 1647 98 2148 91 2041 91 2116 86 1979 49 2003 49 2007 54 1878 68 806 80 1007 96 1421 95 1484 94 1799 92 1763 97 1605 99 1648 98 1891 100 2075 91 2043 86 1980 49 2000 54 1876 51 1307 45 1839 71 997 69 1008 74 799 72 1023 73 1010 77 1038 79 962 79 963 76 1089 76 1117 75 884 78 862 70 782 65 667 67 685 64 574
4218 -2.9055569889808361 3.1759333747281953 4.9202057811582707 232 232 232 0.86468544934451708 58 247 56 218 53 209 43 189
4188 -2.1700503038071286 0.56811534121185581 6.3178369947837458 166 107 105 1.8716358152776591 15 63 60 1900 66 1735 57 375 56 713 58 1318 53 201 50 1208 47 581 43 594 40 610 42 811 38 887 35 841 26 73 11 52 21 39 14 42 12 47 8 91 17 99 18 45 19 20 24 332 48 1590 60 1893 9 33 96 183 95 196 93 200 94 202 92 164 97 402 98 176 76 329 75 192
4059 -1.9639580563749024 -2.1281173872472596 6.4597817940809952 204 124 120 0.55303373890754148 66 1559 58 1554
17042 -0.59651155098555297 2.380423636852349 5.5045839700576726 193 194 194 1.2010875289443339 49 1911 54 1768 51 2002 44 1670 45 1670 46 1632 55 1691 63 1703 61 2153 59 1876 39 1565 51 814 44 842 55 861 63 857 62 832 61 857 59 859
